ply
format ascii 1.0
element vertex 1286
property float x
property float y
property float z
property uchar diffuse_red
property uchar diffuse_green
property uchar diffuse_blue
end_header
149.8500 131.5200 -5.9500   0 255  65
136.0100 126.4200 -0.3400   0 255  65
124.3800 129.8700 1.0700   0 255  65
124.9100 129.7700 1.3500   0 255  65
124.3100 129.7100 1.1000   0 255  65
124.4300 129.6800 1.1500   0 255  65
124.5000 129.6700 1.1000   0 255  65
124.6400 129.6500 1.1900   0 255  65
124.8200 129.6100 1.3300   0 255  65
124.8600 129.6100 1.2200   0 255  65
124.7500 129.6400 0.8800   0 255  65
124.8700 129.6200 0.9100   0 255  65
124.0400 129.5400 1.8800   0 255  65
124.3600 129.4900 1.7400   0 255  65
124.3300 129.5200 1.3200   0 255  65
124.3500 129.5200 1.1800   0 255  65
124.5400 129.4800 1.3400   0 255  65
124.8200 129.4200 1.6400   0 255  65
124.8400 129.4300 1.5100   0 255  65
124.6700 129.4800 1.0500   0 255  65
124.7100 129.4700 0.9600   0 255  65
124.7900 129.4600 0.9300   0 255  65
125.0500 129.4100 1.1900   0 255  65
125.5600 129.3200 1.3100   0 255  65
125.9000 129.2700 1.1600   0 255  65
125.7700 129.3000 0.8400   0 255  65
125.8700 129.2900 0.8200   0 255  65
125.7700 129.3200 0.5500   0 255  65
125.8600 129.3000 0.5300   0 255  65
123.9100 129.3900 1.7900   0 255  65
124.0300 129.3700 1.8200   0 255  65
124.2500 129.3300 1.8800   0 255  65
124.2700 129.3300 1.7200   0 255  65
124.3600 129.3200 1.7000   0 255  65
124.2800 129.3500 1.3700   0 255  65
124.3600 129.3400 1.3400   0 255  65
124.4000 129.3400 1.2500   0 255  65
124.4800 129.3300 1.2000   0 255  65
124.6600 129.2900 1.3400   0 255  65
124.5900 129.3100 1.0500   0 255  65
124.6400 129.3100 0.9700   0 255  65
124.8500 129.2700 1.1400   0 255  65
124.9900 129.2500 1.0500   0 255  65
125.6400 129.1200 1.6800   0 255  65
125.5200 129.1500 1.3400   0 255  65
125.7200 129.1100 1.4700   0 255  65
125.6800 129.1300 1.2600   0 255  65
125.8400 129.1000 1.3100   0 255  65
125.7000 129.1400 0.9700   0 255  65
125.6800 129.1500 0.8100   0 255  65
125.6600 129.1600 0.6400   0 255  65
125.8100 129.1300 0.6800   0 255  65
126.2600 129.0400 1.0900   0 255  65
126.3000 129.0400 0.9900   0 255  65
126.1000 129.0900 0.6100   0 255  65
126.1600 129.0800 0.5500   0 255  65
126.3800 129.0400 0.6700   0 255  65
126.0500 129.1300 0.0200   0 255  65
126.3600 129.0700 0.2300   0 255  65
123.9400 129.2100 1.8500   0 255  65
124.1500 129.1800 1.8600   0 255  65
124.1600 129.1900 1.6900   0 255  65
124.2400 129.1800 1.6500   0 255  65
124.2800 129.1700 1.5500   0 255  65
124.2200 129.2000 1.2600   0 255  65
124.3700 129.1700 1.3500   0 255  65
124.4300 129.1600 1.2900   0 255  65
124.4200 129.1700 1.1000   0 255  65
124.4600 129.1700 1.0100   0 255  65
124.6500 129.1300 1.1500   0 255  65
124.7400 129.1200 1.1200   0 255  65
124.8400 129.1000 1.1200   0 255  65
124.8800 129.1000 1.0200   0 255  65
125.0200 129.0700 1.0700   0 255  65
125.5600 128.9600 1.6900   0 255  65
125.0700 129.0800 0.8400   0 255  65
125.5000 128.9900 1.2700   0 255  65
125.5400 128.9900 1.1700   0 255  65
125.5000 129.0000 0.9700   0 255  65
125.5800 128.9900 0.9200   0 255  65
125.5500 129.0100 0.7400   0 255  65
125.6000 129.0000 0.6700   0 255  65
125.6900 128.9900 0.6300   0 255  65
125.8700 128.9600 0.7100   0 255  65
126.1200 128.9100 0.8700   0 255  65
126.2000 128.9000 0.8100   0 255  65
126.0800 128.9300 0.5400   0 255  65
126.1100 128.9300 0.4400   0 255  65
126.3200 128.8900 0.5400   0 255  65
126.1400 128.9300 0.2100   0 255  65
126.1900 128.9300 0.1300   0 255  65
126.6600 128.8400 0.4900   0 255  65
126.5200 128.8700 0.2100   0 255  65
126.7400 128.8300 0.3000   0 255  65
126.7900 128.8300 0.2200   0 255  65
126.7600 128.8400 0.0600   0 255  65
126.4400 128.9100 -0.3700   0 255  65
126.4800 128.9100 -0.4600   0 255  65
126.7600 128.8600 -0.3100   0 255  65
123.6400 129.0900 2.0200   0 255  65
123.7200 129.0800 1.9800   0 255  65
123.9300 129.0400 1.9900   0 255  65
124.1300 129.0200 1.8000   0 255  65
124.2700 128.9900 1.8600   0 255  65
124.1600 129.0300 1.4900   0 255  65
124.2800 129.0100 1.5100   0 255  65
124.3800 128.9900 1.5100   0 255  65
124.5000 128.9700 1.5300   0 255  65
124.3400 129.0100 1.1100   0 255  65
124.4700 128.9900 1.1500   0 255  65
124.5400 128.9800 1.1000   0 255  65
124.6900 128.9600 1.1700   0 255  65
124.5000 129.0000 0.7400   0 255  65
124.9100 128.9200 1.1800   0 255  65
124.8600 128.9400 0.9500   0 255  65
125.6400 128.7700 1.8900   0 255  65
125.2000 128.8800 1.1200   0 255  65
125.3400 128.8500 1.1600   0 255  65
125.1500 128.9000 0.7500   0 255  65
125.3200 128.8700 0.8300   0 255  65
125.4800 128.8400 0.8900   0 255  65
125.6900 128.8100 1.0000   0 255  65
125.9900 128.7500 1.2200   0 255  65
125.9900 128.7500 1.0800   0 255  65
125.7500 128.8100 0.6500   0 255  65
125.9300 128.7800 0.7100   0 255  65
125.9600 128.7800 0.6100   0 255  65
126.0600 128.7600 0.5800   0 255  65
126.0100 128.7800 0.3900   0 255  65
125.9500 128.8000 0.2000   0 255  65
125.9900 128.8000 0.1100   0 255  65
126.2400 128.7500 0.2400   0 255  65
126.2200 128.7600 0.0900   0 255  65
126.2400 128.7600 -0.0200   0 255  65
126.2900 128.7600 -0.0900   0 255  65
126.3900 128.7400 -0.1200   0 255  65
126.8200 128.6600 0.1700   0 255  65
126.8900 128.6500 0.1100   0 255  65
126.4800 128.7400 -0.4000   0 255  65
127.0100 128.6400 -0.0400   0 255  65
126.7600 128.7000 -0.3900   0 255  65
127.0700 128.6500 -0.3600   0 255  65
127.2300 128.6200 -0.3500   0 255  65
123.6200 128.9200 2.0000   0 255  65
123.7000 128.9100 1.9400   0 255  65
124.1100 128.8300 2.1300   0 255  65
124.1900 128.8200 2.0900   0 255  65
124.2900 128.8100 2.0600   0 255  65
124.3500 128.8000 1.9800   0 255  65
124.2400 128.8400 1.6100   0 255  65
124.3600 128.8200 1.6500   0 255  65
124.3000 128.8400 1.3800   0 255  65
124.3800 128.8300 1.3300   0 255  65
124.3600 128.8400 1.1400   0 255  65
124.5200 128.8100 1.2200   0 255  65
124.5700 128.8100 1.1300   0 255  65
124.7400 128.7800 1.2300   0 255  65
124.8000 128.7700 1.1500   0 255  65
124.9200 128.7500 1.1700   0 255  65
125.3800 128.6600 1.6400   0 255  65
125.3800 128.6600 1.4800   0 255  65
125.2400 128.7000 1.1400   0 255  65
125.1900 128.7200 0.9300   0 255  65
125.1600 128.7300 0.7400   0 255  65
125.3200 128.7000 0.8000   0 255  65
125.7500 128.6200 1.1900   0 255  65
125.7800 128.6200 1.0700   0 255  65
125.9100 128.6000 1.0800   0 255  65
125.7000 128.6500 0.6800   0 255  65
125.8100 128.6300 0.6800   0 255  65
126.0700 128.5800 0.8300   0 255  65
125.9700 128.6100 0.5700   0 255  65
126.0900 128.5900 0.5600   0 255  65
126.0100 128.6100 0.3400   0 255  65
126.1900 128.5800 0.4000   0 255  65
126.2900 128.5700 0.3700   0 255  65
126.6700 128.5000 0.6200   0 255  65
126.1900 128.6000 0.0100   0 255  65
126.6000 128.5200 0.2800   0 255  65
126.6000 128.5300 0.1500   0 255  65
126.8500 128.4800 0.2600   0 255  65
126.4300 128.5700 -0.2600   0 255  65
126.5800 128.5500 -0.2500   0 255  65
126.8200 128.5100 -0.2900   0 255  65
126.9500 128.4900 -0.2900   0 255  65
127.1000 128.4700 -0.2900   0 255  65
127.2800 128.4400 -0.2700   0 255  65
127.2500 128.4500 -0.4100   0 255  65
123.4800 128.7400 2.9500   0 255  65
123.6100 128.7100 3.0000   0 255  65
123.7600 128.6900 3.0800   0 255  65
123.7000 128.7100 2.7400   0 255  65
123.3800 128.8000 1.8900   0 255  65
123.4800 128.7800 1.8900   0 255  65
123.6200 128.7600 1.9700   0 255  65
123.7700 128.7300 2.0500   0 255  65
123.9700 128.6900 2.2300   0 255  65
124.0000 128.6900 2.0800   0 255  65
124.0800 128.6800 2.0400   0 255  65
124.1500 128.6700 1.9800   0 255  65
124.2900 128.6500 2.0200   0 255  65
124.3400 128.6400 1.9200   0 255  65
124.1900 128.6900 1.5100   0 255  65
124.4400 128.6400 1.7300   0 255  65
124.3200 128.6700 1.3700   0 255  65
124.4600 128.6500 1.4200   0 255  65
124.3700 128.6700 1.1200   0 255  65
124.5500 128.6400 1.2300   0 255  65
124.6700 128.6200 1.2400   0 255  65
124.8500 128.5900 1.3400   0 255  65
125.0300 128.5600 1.4300   0 255  65
125.1800 128.5300 1.4700   0 255  65
125.4100 128.4900 1.6200   0 255  65
125.1300 128.5600 0.9400   0 255  65
125.3500 128.5200 1.0700   0 255  65
125.4700 128.5000 1.0600   0 255  65
125.6000 128.4800 1.0800   0 255  65
125.6600 128.4800 1.0000   0 255  65
125.9200 128.4300 1.1600   0 255  65
125.6500 128.4900 0.7000   0 255  65
126.1200 128.4000 1.1000   0 255  65
125.9600 128.4400 0.7700   0 255  65
126.2900 128.3800 0.9900   0 255  65
125.9500 128.4500 0.4800   0 255  65
126.1400 128.4200 0.5500   0 255  65
126.3600 128.3800 0.6400   0 255  65
126.5500 128.3500 0.6900   0 255  65
126.5300 128.3600 0.5400   0 255  65
126.3800 128.4000 0.2400   0 255  65
126.2900 128.4200 0.0300   0 255  65
126.7900 128.3200 0.3800   0 255  65
126.8900 128.3100 0.3300   0 255  65
126.7600 128.3400 0.0800   0 255  65
126.6500 128.3800 -0.2700   0 255  65
126.8700 128.3400 -0.2000   0 255  65
127.0500 128.3100 -0.1800   0 255  65
127.0500 128.3100 -0.3000   0 255  65
127.3700 128.2600 -0.1600   0 255  65
127.2900 128.2800 -0.3500   0 255  65
123.0500 128.6400 2.9400   0 255  65
123.1400 128.6200 2.9100   0 255  65
123.4200 128.5700 3.0300   0 255  65
123.5100 128.5600 3.0000   0 255  65
123.5800 128.5600 2.9100   0 255  65
123.3600 128.6200 2.2500   0 255  65
123.4600 128.6000 2.2500   0 255  65
123.3800 128.6300 1.9000   0 255  65
123.5600 128.5900 2.0500   0 255  65
123.6600 128.5800 2.0300   0 255  65
123.7600 128.5600 2.0300   0 255  65
123.8800 128.5500 2.0400   0 255  65
123.9800 128.5300 2.0200   0 255  65
124.1300 128.5000 2.0900   0 255  65
124.2600 128.4800 2.1200   0 255  65
123.8700 128.5800 1.3100   0 255  65
124.0600 128.5400 1.4400   0 255  65
124.5700 128.4400 2.0600   0 255  65
124.5200 128.4600 1.8100   0 255  65
124.4300 128.4800 1.5100   0 255  65
124.5300 128.4700 1.5000   0 255  65
124.5800 128.4600 1.4000   0 255  65
124.6100 128.4600 1.2700   0 255  65
124.9000 128.4100 1.5200   0 255  65
124.9400 128.4100 1.4200   0 255  65
124.8900 128.4200 1.1900   0 255  65
124.8100 128.4500 0.9300   0 255  65
125.3700 128.3300 1.5100   0 255  65
125.8900 128.2300 2.0000   0 255  65
125.5800 128.3000 1.4600   0 255  65
125.7800 128.2700 1.5500   0 255  65
125.6500 128.3000 1.2300   0 255  65
125.5300 128.3300 0.9400   0 255  65
125.8600 128.2700 1.1700   0 255  65
125.7600 128.3000 0.9100   0 255  65
126.1700 128.2200 1.2300   0 255  65
126.2200 128.2200 1.1300   0 255  65
125.9000 128.2900 0.6400   0 255  65
125.8200 128.3100 0.4200   0 255  65
125.9800 128.2900 0.4400   0 255  65
126.2800 128.2300 0.6200   0 255  65
126.3500 128.2200 0.5500   0 255  65
126.3500 128.2300 0.4200   0 255  65
126.1800 128.2700 0.1200   0 255  65
126.5100 128.2100 0.3000   0 255  65
126.4600 128.2200 0.1200   0 255  65
126.6500 128.1900 0.1600   0 255  65
126.6300 128.2100 -0.1100   0 255  65
126.7000 128.2000 -0.1800   0 255  65
126.7900 128.1900 -0.2200   0 255  65
127.1700 128.1200 -0.0400   0 255  65
126.7300 128.2100 -0.5300   0 255  65
127.2500 128.1200 -0.2300   0 255  65
127.8800 128.0300 -0.5000   0 255  65
122.9100 128.4800 3.0700   0 255  65
123.0200 128.4700 3.0700   0 255  65
123.0400 128.4700 2.8800   0 255  65
123.0900 128.4700 2.7600   0 255  65
123.3200 128.4200 3.0000   0 255  65
123.3000 128.4400 2.7400   0 255  65
123.4700 128.4000 2.8700   0 255  65
123.6100 128.3800 2.9200   0 255  65
123.5200 128.4100 2.5300   0 255  65
123.5200 128.4200 2.3300   0 255  65
123.5500 128.4200 2.1900   0 255  65
123.6300 128.4100 2.1300   0 255  65
123.7200 128.4000 2.0900   0 255  65
123.8500 128.3800 2.1300   0 255  65
124.0600 128.3400 2.2900   0 255  65
123.9700 128.3700 1.9600   0 255  65
124.1100 128.3400 2.0100   0 255  65
124.2200 128.3300 1.9900   0 255  65
124.3700 128.3000 2.0500   0 255  65
124.4500 128.2900 2.0000   0 255  65
124.4400 128.3000 1.8100   0 255  65
124.5100 128.2900 1.7400   0 255  65
124.2300 128.3600 1.1800   0 255  65
124.4100 128.3300 1.2700   0 255  65
124.5100 128.3100 1.2500   0 255  65
124.5600 128.3100 1.1700   0 255  65
124.7900 128.2700 1.3100   0 255  65
124.9600 128.2300 1.3800   0 255  65
124.9000 128.2500 1.1500   0 255  65
125.9800 128.0300 2.3500   0 255  65
125.7000 128.1000 1.8400   0 255  65
126.1500 128.0100 2.2300   0 255  65
125.4600 128.1600 1.2300   0 255  65
125.5000 128.1600 1.1200   0 255  65
125.5200 128.1600 1.0100   0 255  65
125.4600 128.1800 0.7800   0 255  65
125.8600 128.1100 1.0900   0 255  65
125.9000 128.1100 0.9900   0 255  65
125.6800 128.1600 0.6100   0 255  65
125.6700 128.1600 0.4600   0 255  65
125.8700 128.1300 0.5300   0 255  65
126.4600 128.0200 0.9900   0 255  65
126.2900 128.0600 0.6800   0 255  65
126.4400 128.0300 0.6900   0 255  65
126.7700 127.9700 0.8700   0 255  65
126.8200 127.9700 0.7700   0 255  65
126.4600 128.0500 0.2900   0 255  65
126.4900 128.0500 0.0500   0 255  65
126.7200 128.0100 0.1300   0 255  65
126.5700 128.0500 -0.1300   0 255  65
126.9800 127.9800 0.0900   0 255  65
127.2000 127.9400 0.1500   0 255  65
126.6600 128.0500 -0.5500   0 255  65
122.9100 128.3300 3.0100   0 255  65
123.0000 128.3100 2.9800   0 255  65
123.0000 128.3200 2.7500   0 255  65
123.1400 128.3000 2.8100   0 255  65
123.1900 128.3000 2.6800   0 255  65
123.4600 128.2400 2.9900   0 255  65
123.3500 128.2800 2.5600   0 255  65
123.3900 128.2800 2.4500   0 255  65
123.3800 128.2900 2.2300   0 255  65
123.2900 128.3200 1.8700   0 255  65
123.3700 128.3100 1.8300   0 255  65
123.6500 128.2500 2.1100   0 255  65
123.6900 128.2500 2.0100   0 255  65
123.8700 128.2200 2.1100   0 255  65
123.8600 128.2300 1.9000   0 255  65
123.9000 128.2200 1.7900   0 255  65
124.0900 128.1900 1.9200   0 255  65
124.2500 128.1600 1.9800   0 255  65
124.2900 128.1600 1.8700   0 255  65
124.4000 128.1400 1.8500   0 255  65
124.2200 128.1900 1.4300   0 255  65
124.3500 128.1700 1.4600   0 255  65
124.1200 128.2300 0.9700   0 255  65
124.2100 128.2100 0.9400   0 255  65
124.4400 128.1700 1.1000   0 255  65
124.5600 128.1500 1.1100   0 255  65
124.8400 128.1000 1.3200   0 255  65
124.8600 128.1000 1.1800   0 255  65
125.3700 128.0000 1.6700   0 255  65
125.4100 128.0000 1.5500   0 255  65
125.4700 127.9900 1.4700   0 255  65
125.5500 127.9800 1.4100   0 255  65
125.4100 128.0200 1.0900   0 255  65
125.4900 128.0100 1.0400   0 255  65
125.3400 128.0400 0.7200   0 255  65
125.4500 128.0300 0.7000   0 255  65
125.5100 128.0200 0.6200   0 255  65
125.5600 128.0200 0.5300   0 255  65
125.9600 127.9400 0.8200   0 255  65
126.3800 127.8700 1.1000   0 255  65
126.3900 127.8700 0.9600   0 255  65
126.5000 127.8600 0.9200   0 255  65
126.3700 127.8900 0.6600   0 255  65
126.8500 127.8000 0.9800   0 255  65
126.6900 127.8400 0.6800   0 255  65
125.3500 128.1000 -0.6900   0 255  65
126.6100 127.8600 0.3300   0 255  65
126.9400 127.8100 0.4900   0 255  65
126.9900 127.8100 0.1300   0 255  65
126.8300 127.8600 -0.3900   0 255  65
122.9300 128.1400 3.0000   0 255  65
123.0400 128.1300 3.0000   0 255  65
123.0100 128.1400 2.7200   0 255  65
123.2300 128.1000 2.9200   0 255  65
123.3000 128.0900 2.8400   0 255  65
123.3500 128.0900 2.7300   0 255  65
123.3600 128.1000 2.5300   0 255  65
123.2200 128.1400 2.0900   0 255  65
123.1600 128.1600 1.7900   0 255  65
123.3000 128.1400 1.8500   0 255  65
123.4200 128.1200 1.8700   0 255  65
123.5300 128.1000 1.8700   0 255  65
123.7700 128.0500 2.0700   0 255  65
123.7300 128.0700 1.8300   0 255  65
123.8500 128.0500 1.8400   0 255  65
124.0900 128.0100 2.0300   0 255  65
124.2300 127.9800 2.0500   0 255  65
124.2800 127.9800 1.9700   0 255  65
124.3800 127.9600 1.9200   0 255  65
124.4900 127.9500 1.9100   0 255  65
124.3200 127.9900 1.5100   0 255  65
124.4400 127.9700 1.5100   0 255  65
124.3100 128.0100 1.1700   0 255  65
124.5100 127.9700 1.2900   0 255  65
124.5800 127.9600 1.2100   0 255  65
124.7900 127.9300 1.3300   0 255  65
125.1700 127.8500 1.6500   0 255  65
125.2100 127.8500 1.5300   0 255  65
125.2300 127.8500 1.4100   0 255  65
125.3100 127.8400 1.3500   0 255  65
125.2200 127.8700 1.0900   0 255  65
125.2400 127.8700 0.9600   0 255  65
125.2500 127.8800 0.8300   0 255  65
125.3700 127.8600 0.8200   0 255  65
125.3500 127.8700 0.6500   0 255  65
125.5500 127.8400 0.7200   0 255  65
125.5500 127.8400 0.5800   0 255  65
125.7700 127.8000 0.6700   0 255  65
126.3900 127.6900 1.1500   0 255  65
125.5200 127.8600 0.1400   0 255  65
126.3700 127.7000 0.8300   0 255  65
126.3600 127.7100 0.6800   0 255  65
126.9100 127.6100 1.0500   0 255  65
126.6800 127.6700 0.5600   0 255  65
123.1200 127.9600 2.8200   0 255  65
123.2400 127.9400 2.8300   0 255  65
123.2000 127.9600 2.5500   0 255  65
123.2800 127.9500 2.4900   0 255  65
123.0800 128.0000 1.9500   0 255  65
123.2500 127.9700 2.0500   0 255  65
123.3700 127.9500 2.0600   0 255  65
123.6400 127.9000 2.3300   0 255  65
123.7100 127.8900 2.2400   0 255  65
123.6300 127.9200 1.9300   0 255  65
123.6700 127.9200 1.8200   0 255  65
123.8800 127.8800 1.9700   0 255  65
123.9800 127.8600 1.9400   0 255  65
124.0900 127.8500 1.9200   0 255  65
124.2200 127.8300 1.9300   0 255  65
124.3700 127.8000 1.9700   0 255  65
124.4200 127.8000 1.8700   0 255  65
124.5400 127.7800 1.8700   0 255  65
124.3000 127.8400 1.3900   0 255  65
124.7800 127.7400 1.8500   0 255  65
124.4400 127.8200 1.2400   0 255  65
124.6400 127.7900 1.3500   0 255  65
125.0300 127.7100 1.6700   0 255  65
125.1900 127.6900 1.7100   0 255  65
125.2300 127.6800 1.6000   0 255  65
125.3000 127.6800 1.3700   0 255  65
124.8400 127.7900 0.5500   0 255  65
125.3900 127.6800 1.0200   0 255  65
125.3500 127.7000 0.8200   0 255  65
125.4200 127.6900 0.7600   0 255  65
126.2000 127.5400 1.4200   0 255  65
125.7600 127.6400 0.8200   0 255  65
126.9500 127.4100 1.8700   0 255  65
126.8100 127.5200 -0.2800   0 255  65
123.0200 127.8200 2.5600   0 255  65
123.1300 127.8000 2.5500   0 255  65
123.1700 127.8000 2.4300   0 255  65
123.1800 127.8100 2.2400   0 255  65
123.1700 127.8200 2.0500   0 255  65
123.3300 127.7900 2.1100   0 255  65
123.5700 127.7400 2.3200   0 255  65
123.5400 127.7600 2.0800   0 255  65
123.5800 127.7600 1.9600   0 255  65
123.8300 127.7100 2.1700   0 255  65
123.8200 127.7200 1.9800   0 255  65
123.9800 127.6900 2.0400   0 255  65
124.0100 127.6900 1.9000   0 255  65
123.6700 127.7700 1.2600   0 255  65
124.2400 127.6600 1.8900   0 255  65
124.3300 127.6500 1.8300   0 255  65
124.4300 127.6300 1.8000   0 255  65
124.7000 127.5800 1.9900   0 255  65
124.7400 127.5800 1.8700   0 255  65
124.8700 127.5600 1.8700   0 255  65
124.4700 127.6500 1.2100   0 255  65
124.6600 127.6200 1.2900   0 255  65
125.5500 127.4400 2.2000   0 255  65
124.5400 127.6600 0.7000   0 255  65
122.8500 127.6900 2.3600   0 255  65
123.0200 127.6600 2.4500   0 255  65
123.1500 127.6400 2.4800   0 255  65
123.0700 127.6600 2.1600   0 255  65
123.2800 127.6300 2.3100   0 255  65
123.3000 127.6300 2.1600   0 255  65
123.5700 127.5800 2.3900   0 255  65
123.4100 127.6200 1.9600   0 255  65
123.5400 127.6000 1.9800   0 255  65
123.7900 127.5600 2.1700   0 255  65
123.8700 127.5400 2.1100   0 255  65
123.4900 127.6300 1.3900   0 255  65
123.6300 127.6100 1.4300   0 255  65
124.0600 127.5300 1.8500   0 255  65
124.1700 127.5100 1.8400   0 255  65
124.3600 127.4800 1.9300   0 255  65
124.5100 127.4500 1.9400   0 255  65
124.6100 127.4400 1.9100   0 255  65
124.7000 127.4300 1.8500   0 255  65
124.8400 127.4100 1.8700   0 255  65
124.9900 127.3800 1.8800   0 255  65
124.4200 127.5100 1.0400   0 255  65
124.7300 127.4500 1.2500   0 255  65
123.4000 127.3900 3.6700   0 255  65
122.7900 127.5300 2.3800   0 255  65
123.3400 127.4200 3.1200   0 255  65
123.1800 127.4600 2.6500   0 255  65
123.2900 127.4500 2.6300   0 255  65
123.2400 127.4700 2.3600   0 255  65
123.3300 127.4500 2.3100   0 255  65
123.4800 127.4300 2.3500   0 255  65
123.5300 127.4300 2.2400   0 255  65
123.5100 127.4400 2.0300   0 255  65
123.7200 127.4000 2.1600   0 255  65
123.8200 127.3900 2.1200   0 255  65
123.8800 127.3800 2.0400   0 255  65
123.9600 127.3700 1.9700   0 255  65
124.0900 127.3500 1.9800   0 255  65
124.0900 127.3600 1.8100   0 255  65
124.2700 127.3300 1.8700   0 255  65
124.4800 127.2900 1.9700   0 255  65
124.5800 127.2800 1.9400   0 255  65
124.6100 127.2800 1.8000   0 255  65
124.7300 127.2600 1.7900   0 255  65
124.6600 127.2800 1.5500   0 255  65
124.9300 127.2400 1.7100   0 255  65
124.6700 127.3000 1.2400   0 255  65
125.3400 127.1700 1.8400   0 255  65
125.3500 127.1800 1.5400   0 255  65
123.2400 127.2500 3.6900   0 255  65
123.2500 127.2500 3.4700   0 255  65
123.2300 127.2700 3.2200   0 255  65
123.3600 127.2500 3.2300   0 255  65
123.5600 127.2100 3.3500   0 255  65
123.1500 127.3100 2.4800   0 255  65
123.2400 127.3000 2.4300   0 255  65
123.3200 127.2900 2.3600   0 255  65
123.4400 127.2700 2.3700   0 255  65
123.4600 127.2700 2.2200   0 255  65
123.6800 127.2400 2.3500   0 255  65
123.6200 127.2600 2.0900   0 255  65
123.7200 127.2400 2.0500   0 255  65
123.7800 127.2400 1.9600   0 255  65
123.9500 127.2100 2.0200   0 255  65
124.0500 127.2000 1.9700   0 255  65
124.1000 127.1900 1.8700   0 255  65
124.1800 127.1800 1.8100   0 255  65
124.2700 127.1700 1.7500   0 255  65
124.6400 127.1000 2.0500   0 255  65
124.5500 127.1300 1.7700   0 255  65
124.5500 127.1400 1.6100   0 255  65
124.7000 127.1100 1.6300   0 255  65
125.1000 127.0700 1.2900   0 255  65
125.3100 127.0400 1.2000   0 255  65
125.2700 127.0500 1.0100   0 255  65
123.0700 127.1100 3.6900   0 255  65
123.1900 127.1000 3.6800   0 255  65
123.2800 127.0800 3.6100   0 255  65
123.2800 127.0900 3.3900   0 255  65
123.2800 127.1000 3.1700   0 255  65
123.1400 127.1400 2.7500   0 255  65
123.4400 127.0900 3.0200   0 255  65
123.1700 127.1500 2.4000   0 255  65
123.4700 127.1000 2.6700   0 255  65
123.4300 127.1100 2.4200   0 255  65
123.4900 127.1100 2.3200   0 255  65
123.5400 127.1000 2.2100   0 255  65
123.6100 127.1000 2.1400   0 255  65
123.7300 127.0800 2.1200   0 255  65
124.0600 127.0200 2.4000   0 255  65
124.0700 127.0200 2.2400   0 255  65
124.0600 127.0300 2.0500   0 255  65
124.0800 127.0400 1.8900   0 255  65
124.3300 126.9900 2.0400   0 255  65
124.2000 127.0200 1.7200   0 255  65
124.2900 127.0100 1.6600   0 255  65
124.3700 127.0000 1.6000   0 255  65
124.5500 126.9700 1.6500   0 255  65
125.4200 126.8800 0.7300   0 255  65
123.0100 126.9600 3.6600   0 255  65
123.1400 126.9400 3.6700   0 255  65
122.9600 126.9900 3.1500   0 255  65
122.9500 127.0000 2.9300   0 255  65
123.1000 126.9800 2.9600   0 255  65
123.2100 126.9600 2.9300   0 255  65
123.3600 126.9400 2.9700   0 255  65
123.4100 126.9300 2.8500   0 255  65
123.4100 126.9400 2.6600   0 255  65
123.5500 126.9200 2.6600   0 255  65
123.4400 126.9500 2.3200   0 255  65
123.5200 126.9400 2.2500   0 255  65
123.4900 126.9600 2.0400   0 255  65
123.6800 126.9300 2.1100   0 255  65
123.8000 126.9100 2.1000   0 255  65
123.8900 126.9000 2.0500   0 255  65
123.9700 126.8900 1.9800   0 255  65
124.1700 126.8500 2.0600   0 255  65
124.2400 126.8500 1.9800   0 255  65
124.3100 126.8400 1.8900   0 255  65
124.2500 126.8600 1.6600   0 255  65
124.5000 126.8200 1.7900   0 255  65
124.3700 126.8500 1.4800   0 255  65
124.5400 126.8200 1.5000   0 255  65
124.7500 126.7900 1.5900   0 255  65
124.5800 126.8300 1.2400   0 255  65
124.7600 126.8000 1.1300   0 255  65
123.1400 126.7700 3.7600   0 255  65
122.8100 126.8600 2.8000   0 255  65
122.9100 126.8500 2.7600   0 255  65
123.1000 126.8200 2.8600   0 255  65
123.2000 126.8000 2.8100   0 255  65
123.3200 126.7900 2.8000   0 255  65
123.4500 126.7700 2.7900   0 255  65
123.3200 126.8000 2.4200   0 255  65
123.4800 126.7800 2.4600   0 255  65
123.5000 126.7800 2.3000   0 255  65
123.7300 126.7400 2.4300   0 255  65
123.6800 126.7600 2.1900   0 255  65
123.8600 126.7300 2.2500   0 255  65
123.7400 126.7600 1.9200   0 255  65
123.9100 126.7300 1.9600   0 255  65
124.1400 126.6900 2.0900   0 255  65
124.1500 126.7000 1.9300   0 255  65
124.1900 126.7000 1.8000   0 255  65
124.2900 126.6800 1.7600   0 255  65
124.5100 126.6500 1.8500   0 255  65
125.3100 126.5000 2.5900   0 255  65
124.5100 126.6600 1.5200   0 255  65
125.1400 126.5500 2.0500   0 255  65
124.6300 126.6500 1.3400   0 255  65
124.6000 126.6600 1.1500   0 255  65
124.6300 126.6600 1.0300   0 255  65
124.7300 126.6500 0.9900   0 255  65
124.7400 126.6500 0.8500   0 255  65
125.3500 126.5500 1.1500   0 255  65
125.5600 126.5200 1.2000   0 255  65
126.1100 126.4300 1.3900   0 255  65
122.9900 126.6600 3.1700   0 255  65
122.9300 126.6800 2.8800   0 255  65
123.0400 126.6600 2.8400   0 255  65
123.0700 126.6700 2.6900   0 255  65
123.2200 126.6400 2.7200   0 255  65
123.2800 126.6400 2.6000   0 255  65
123.3500 126.6300 2.5200   0 255  65
123.3900 126.6300 2.3900   0 255  65
123.5800 126.6000 2.4700   0 255  65
123.6700 126.5900 2.4100   0 255  65
123.7800 126.5700 2.3700   0 255  65
123.7700 126.5800 2.1800   0 255  65
123.9000 126.5600 2.1700   0 255  65
123.8700 126.5800 1.9600   0 255  65
124.0000 126.5600 1.9500   0 255  65
124.0300 126.5600 1.8200   0 255  65
124.4700 126.4800 2.1700   0 255  65
124.4900 126.4800 2.0200   0 255  65
124.5300 126.4800 1.9000   0 255  65
125.1000 126.3800 2.3600   0 255  65
125.0100 126.4100 2.1000   0 255  65
125.1600 126.3800 2.0900   0 255  65
125.2700 126.3700 2.0300   0 255  65
124.5400 126.5100 1.1100   0 255  65
124.9500 126.4400 1.3800   0 255  65
124.6300 126.5100 0.9100   0 255  65
124.7500 126.4900 0.8800   0 255  65
125.4500 126.3700 1.4000   0 255  65
125.4700 126.3700 1.2600   0 255  65
126.3200 126.2300 1.7400   0 255  65
126.3900 126.2300 1.4800   0 255  65
122.9800 126.5100 3.0400   0 255  65
123.0000 126.5100 2.8800   0 255  65
123.1700 126.4900 2.7400   0 255  65
123.3700 126.4600 2.8200   0 255  65
123.1700 126.5100 2.3600   0 255  65
123.4100 126.4600 2.5100   0 255  65
123.5700 126.4400 2.5400   0 255  65
123.7600 126.4100 2.6000   0 255  65
123.7400 126.4200 2.4000   0 255  65
123.9200 126.3900 2.4400   0 255  65
123.8400 126.4200 2.1700   0 255  65
123.8700 126.4200 2.0300   0 255  65
123.9100 126.4200 1.9100   0 255  65
124.1500 126.3800 2.0200   0 255  65
124.2100 126.3700 1.9300   0 255  65
124.2600 126.3700 1.8100   0 255  65
124.5100 126.3300 1.9300   0 255  65
124.6600 126.3100 1.9300   0 255  65
124.9500 126.2600 2.0700   0 255  65
125.1000 126.2400 2.0600   0 255  65
124.2500 126.4000 1.0100   0 255  65
124.3400 126.3900 0.9600   0 255  65
125.4800 126.1900 1.9500   0 255  65
124.6200 126.3500 0.9400   0 255  65
124.6800 126.3500 0.8500   0 255  65
124.7800 126.3300 0.8000   0 255  65
125.5500 126.2000 1.3700   0 255  65
125.6800 126.1800 1.3300   0 255  65
126.4200 126.0500 1.8400   0 255  65
126.6000 126.0300 1.8400   0 255  65
126.3300 126.0800 1.4400   0 255  65
125.7400 126.2000 0.6300   0 255  65
126.6400 126.0600 0.9100   0 255  65
125.8000 126.2200 -0.0300   0 255  65
123.2000 126.3000 3.4400   0 255  65
123.1000 126.3400 2.8800   0 255  65
123.3200 126.3000 3.0000   0 255  65
123.8000 126.2200 3.2800   0 255  65
123.5400 126.2800 2.7300   0 255  65
123.7800 126.2500 2.6700   0 255  65
124.0000 126.2100 2.7600   0 255  65
123.8600 126.2500 2.4100   0 255  65
123.9300 126.2400 2.3100   0 255  65
123.9200 126.2500 2.1300   0 255  65
124.0900 126.2300 1.9900   0 255  65
124.6800 126.1300 2.4800   0 255  65
124.1700 126.2300 1.7400   0 255  65
124.4100 126.1900 1.8400   0 255  65
124.3500 126.2100 1.6100   0 255  65
124.3800 126.2100 1.4900   0 255  65
125.0600 126.0900 2.0300   0 255  65
125.1400 126.0800 1.9400   0 255  65
125.4400 126.0400 1.9100   0 255  65
124.5500 126.2000 0.8800   0 255  65
124.6800 126.1900 0.8600   0 255  65
124.7000 126.1900 0.7300   0 255  65
124.7200 126.1900 0.6100   0 255  65
125.0200 126.1400 0.7300   0 255  65
125.1000 126.1300 0.6600   0 255  65
125.6600 126.0500 0.8500   0 255  65
125.8300 126.0300 0.6900   0 255  65
125.5000 126.0900 0.2800   0 255  65
125.9500 126.0200 0.3500   0 255  65
123.0800 126.1500 3.8000   0 255  65
122.9200 126.2000 3.1500   0 255  65
123.0600 126.1800 3.1400   0 255  65
123.2600 126.1600 2.8500   0 255  65
123.6000 126.1000 3.1000   0 255  65
123.7800 126.0800 2.9600   0 255  65
123.9200 126.0600 2.9400   0 255  65
124.3300 126.0000 3.0800   0 255  65
123.9400 126.0800 2.4200   0 255  65
124.4800 125.9900 2.7000   0 255  65
124.6100 125.9700 2.6500   0 255  65
124.5900 125.9800 2.4600   0 255  65
124.8200 125.9500 2.5300   0 255  65
124.7900 125.9600 2.3200   0 255  65
124.8400 125.9600 2.2100   0 255  65
124.3000 126.0600 1.4700   0 255  65
124.4800 126.0400 1.5000   0 255  65
124.5600 126.0300 1.2700   0 255  65
125.7600 125.8200 2.2700   0 255  65
125.7600 125.8300 2.1000   0 255  65
124.5700 126.0500 0.8200   0 255  65
124.6600 126.0400 0.7500   0 255  65
124.5600 126.0600 0.5200   0 255  65
124.6700 126.0500 0.4700   0 255  65
125.2700 125.9500 0.8600   0 255  65
125.4500 125.9200 0.8600   0 255  65
125.4600 125.9200 0.7200   0 255  65
125.4900 125.9300 0.6000   0 255  65
125.5100 125.9300 0.3200   0 255  65
122.6900 126.0600 3.4900   0 255  65
122.7100 126.0600 3.3100   0 255  65
122.6800 126.0700 3.0600   0 255  65
122.8700 126.0400 3.1300   0 255  65
122.9100 126.0400 2.9900   0 255  65
123.1500 126.0000 3.1200   0 255  65
123.3700 125.9700 3.2300   0 255  65
123.2700 126.0000 2.9000   0 255  65
123.3700 125.9900 2.6500   0 255  65
123.5700 125.9600 2.7200   0 255  65
123.9500 125.8900 3.0100   0 255  65
123.7800 125.9300 2.6200   0 255  65
123.9700 125.9100 2.6600   0 255  65
123.8400 125.9400 2.3300   0 255  65
124.3500 125.8500 2.5600   0 255  65
124.8100 125.7900 2.5400   0 255  65
124.9100 125.7800 2.4600   0 255  65
124.7600 125.8100 2.1300   0 255  65
125.1300 125.7700 1.9900   0 255  65
124.4800 125.8900 1.2000   0 255  65
124.4700 125.8900 1.0400   0 255  65
124.5600 125.8800 0.9600   0 255  65
124.5700 125.8900 0.8300   0 255  65
124.5200 125.9000 0.6300   0 255  65
124.6000 125.8900 0.5600   0 255  65
124.6000 125.9000 0.4200   0 255  65
124.6300 125.9000 0.3100   0 255  65
125.3500 125.7800 0.7700   0 255  65
125.6000 125.7400 0.8300   0 255  65
125.4800 125.7700 0.5800   0 255  65
125.5200 125.7700 0.4700   0 255  65
125.3600 125.8000 0.1900   0 255  65
125.2900 125.8200 0.0000   0 255  65
122.5600 125.9100 3.4000   0 255  65
122.6400 125.9100 3.3000   0 255  65
122.7100 125.9000 3.2100   0 255  65
122.8100 125.8900 3.1500   0 255  65
122.8800 125.8800 3.0500   0 255  65
123.0500 125.8600 3.0900   0 255  65
123.2300 125.8300 3.1300   0 255  65
123.3100 125.8200 3.0400   0 255  65
123.3500 125.8200 2.9000   0 255  65
123.4700 125.8100 2.8600   0 255  65
124.1900 125.6800 3.5800   0 255  65
123.6300 125.7900 2.6900   0 255  65
123.8900 125.7500 2.8200   0 255  65
124.0700 125.7200 2.8500   0 255  65
123.8500 125.7700 2.4000   0 255  65
123.9800 125.7500 2.3800   0 255  65
124.2100 125.7200 2.4600   0 255  65
124.3100 125.7100 2.4000   0 255  65
124.7500 125.6400 2.5200   0 255  65
125.1100 125.6100 2.0200   0 255  65
125.5300 125.5400 2.2500   0 255  65
125.6100 125.5300 2.1500   0 255  65
125.7300 125.5200 2.0900   0 255  65
124.4500 125.7500 0.7600   0 255  65
124.5500 125.7300 0.7000   0 255  65
124.5300 125.7400 0.5400   0 255  65
124.6000 125.7400 0.4500   0 255  65
124.5300 125.7500 0.2500   0 255  65
124.5700 125.7500 0.1400   0 255  65
125.5300 125.5900 0.7900   0 255  65
125.4500 125.6100 0.5700   0 255  65
125.4700 125.6100 0.4500   0 255  65
125.5600 125.6000 0.3700   0 255  65
122.8700 125.6900 4.1400   0 255  65
122.8700 125.7000 3.9100   0 255  65
122.7700 125.7200 3.5600   0 255  65
122.6500 125.7500 3.1800   0 255  65
122.8000 125.7300 3.2000   0 255  65
122.8700 125.7300 3.1000   0 255  65
123.0000 125.7100 3.0700   0 255  65
123.0500 125.7100 2.9500   0 255  65
123.2400 125.6800 3.0000   0 255  65
123.3900 125.6600 3.0000   0 255  65
123.3800 125.6700 2.8000   0 255  65
123.5100 125.6500 2.7700   0 255  65
123.6100 125.6400 2.7100   0 255  65
123.8300 125.6100 2.7800   0 255  65
124.0800 125.5700 2.7100   0 255  65
124.1700 125.5600 2.6300   0 255  65
124.4200 125.5200 2.7100   0 255  65
124.4500 125.5300 2.3900   0 255  65
124.5600 125.5200 2.3300   0 255  65
124.8700 125.4800 2.3000   0 255  65
124.9400 125.4700 2.1900   0 255  65
124.9400 125.4800 2.0300   0 255  65
125.6000 125.3700 2.3100   0 255  65
125.5500 125.3900 1.9300   0 255  65
125.6500 125.3800 1.8400   0 255  65
125.7700 125.3700 1.7800   0 255  65
125.5500 125.4100 1.4300   0 255  65
126.5100 125.2500 2.0800   0 255  65
124.5700 125.5900 0.3000   0 255  65
124.4600 125.6100 0.0700   0 255  65
124.5800 125.6000 0.0200   0 255  65
124.8600 125.5600 0.1100   0 255  65
124.7300 125.5900 -0.2700   0 255  65
122.6900 125.5700 3.7300   0 255  65
122.6100 125.5900 3.4000   0 255  65
122.5100 125.6100 3.0700   0 255  65
122.6800 125.5900 3.1100   0 255  65
122.8100 125.5700 3.0900   0 255  65
122.9400 125.5500 3.0600   0 255  65
123.1000 125.5300 3.0700   0 255  65
123.2100 125.5200 3.0300   0 255  65
123.3200 125.5000 2.9700   0 255  65
123.4900 125.4800 2.9900   0 255  65
123.4600 125.4900 2.7600   0 255  65
123.6400 125.4700 2.8000   0 255  65
123.7900 125.4500 2.7900   0 255  65
123.9600 125.4200 2.7900   0 255  65
123.6800 125.4800 2.2900   0 255  65
123.8200 125.4600 2.2700   0 255  65
124.4600 125.3500 2.8000   0 255  65
124.8300 125.3200 2.1100   0 255  65
125.0200 125.3000 2.1300   0 255  65
125.1600 125.2900 1.9100   0 255  65
125.5000 125.2300 2.0600   0 255  65
126.2700 125.1300 1.8700   0 255  65
126.1400 125.1700 1.4300   0 255  65
124.3900 125.4600 -0.1100   0 255  65
124.5100 125.4500 -0.1600   0 255  65
122.7000 125.4000 3.7900   0 255  65
122.4400 125.4500 3.2200   0 255  65
122.7700 125.4000 3.4800   0 255  65
122.6700 125.4200 3.1400   0 255  65
122.8300 125.4000 3.1600   0 255  65
122.8700 125.4000 3.0100   0 255  65
123.0700 125.3700 3.0700   0 255  65
123.1400 125.3700 2.9700   0 255  65
123.2200 125.3600 2.8800   0 255  65
123.6300 125.2900 3.1900   0 255  65
123.6900 125.2900 3.0700   0 255  65
123.5800 125.3100 2.7500   0 255  65
123.7100 125.3000 2.7100   0 255  65
123.8600 125.2800 2.7000   0 255  65
124.0400 125.2500 2.7100   0 255  65
124.2500 125.2200 2.7600   0 255  65
124.4300 125.2000 2.7700   0 255  65
123.9700 125.2900 1.9400   0 255  65
124.7100 125.1800 2.1600   0 255  65
124.9300 125.1500 2.2000   0 255  65
125.0100 125.1400 2.1100   0 255  65
125.0700 125.1400 1.8300   0 255  65
125.1400 125.1300 1.7200   0 255  65
125.4900 125.0900 1.7000   0 255  65
125.9400 125.0200 1.7400   0 255  65
125.9800 125.0300 1.2700   0 255  65
124.5500 125.2800 0.0100   0 255  65
122.6400 125.2300 3.9800   0 255  65
122.6900 125.2300 3.8400   0 255  65
122.8500 125.2100 3.8400   0 255  65
122.9400 125.2000 3.7500   0 255  65
123.1100 125.1700 3.7800   0 255  65
122.7600 125.2500 3.1100   0 255  65
123.2900 125.1600 3.5900   0 255  65
123.0300 125.2100 3.0700   0 255  65
123.1400 125.2000 3.0100   0 255  65
123.1000 125.2100 2.7700   0 255  65
123.1700 125.2000 2.6700   0 255  65
123.5500 125.1400 2.9300   0 255  65
123.5400 125.1500 2.7300   0 255  65
123.7400 125.1200 2.7700   0 255  65
123.8400 125.1100 2.7000   0 255  65
123.6300 125.1600 2.2900   0 255  65
123.9000 125.1300 1.8900   0 255  65
125.0100 124.9700 2.2800   0 255  65
125.1500 124.9500 2.2400   0 255  65
126.2400 124.7800 2.8700   0 255  65
125.1800 124.9600 1.7500   0 255  65
125.5600 124.9100 1.7500   0 255  65
125.3900 124.9700 0.6500   0 255  65
124.7100 125.0900 -0.0100   0 255  65
124.7000 125.0900 -0.1600   0 255  65
126.1000 124.8700 0.7100   0 255  65
125.4500 124.9900 -0.0500   0 255  65
124.4500 125.1500 -0.8800   0 255  65
124.4900 125.1500 -0.9800   0 255  65
122.4300 125.1100 3.5100   0 255  65
123.0300 125.0100 4.1200   0 255  65
123.1400 124.9900 4.0400   0 255  65
123.1800 124.9900 3.8800   0 255  65
122.8800 125.0600 3.2900   0 255  65
123.1900 125.0100 3.4900   0 255  65
123.2400 125.0000 3.3500   0 255  65
123.0700 125.0400 2.9500   0 255  65
123.1100 125.0400 2.8100   0 255  65
123.1500 125.0400 2.6700   0 255  65
123.3900 125.0000 2.7600   0 255  65
123.4500 125.0000 2.6400   0 255  65
123.4800 125.0000 2.4900   0 255  65
123.7500 124.9600 2.6200   0 255  65
124.9600 124.8000 2.4000   0 255  65
125.0400 124.8000 2.2900   0 255  65
125.2800 124.7600 2.3400   0 255  65
125.3300 124.7600 2.0300   0 255  65
125.2700 124.7800 1.8100   0 255  65
125.7600 124.7200 1.7100   0 255  65
125.9000 124.7000 1.6600   0 255  65
124.6400 124.9200 0.3400   0 255  65
125.3400 124.8100 0.7400   0 255  65
125.4700 124.7900 0.6800   0 255  65
125.4600 124.8000 0.5200   0 255  65
126.0700 124.7100 0.6500   0 255  65
126.0900 124.7100 0.5100   0 255  65
126.3100 124.6800 0.5100   0 255  65
126.4900 124.6700 0.3100   0 255  65
124.3800 125.0400 -2.1700   0 255  65
126.4600 124.7700 -2.6200   0 255  65
125.8000 124.8800 -3.1300   0 255  65
122.3100 124.9700 3.3800   0 255  65
122.8000 124.8900 3.6200   0 255  65
122.7100 124.9100 3.3000   0 255  65
122.9100 124.8900 3.3500   0 255  65
122.9600 124.8800 3.2200   0 255  65
123.1800 124.8500 3.2800   0 255  65
123.1300 124.8700 3.0300   0 255  65
123.2900 124.8400 3.0300   0 255  65
123.2400 124.8600 2.7800   0 255  65
123.6300 124.8000 2.8500   0 255  65
123.3600 124.8600 2.3700   0 255  65
123.5700 124.8300 2.4200   0 255  65
123.6900 124.8100 2.3700   0 255  65
123.8100 124.8000 2.3200   0 255  65
125.2300 124.6000 2.4500   0 255  65
125.7100 124.5400 2.3300   0 255  65
125.4500 124.5900 1.9400   0 255  65
125.3900 124.6000 1.7100   0 255  65
126.0000 124.5100 2.0500   0 255  65
125.5300 124.5900 1.4900   0 255  65
126.3400 124.4600 1.9700   0 255  65
124.7700 124.7300 0.4200   0 255  65
124.9800 124.7000 0.4300   0 255  65
125.3700 124.6500 0.5700   0 255  65
125.4800 124.6300 0.4900   0 255  65
126.1400 124.5400 0.5000   0 255  65
126.1400 124.5500 0.3400   0 255  65
124.8500 124.7600 -0.6600   0 255  65
124.9600 124.7500 -0.7200   0 255  65
125.5700 124.6600 -0.4800   0 255  65
125.4700 124.6800 -0.6800   0 255  65
126.3200 124.5500 -0.3000   0 255  65
127.1300 124.4400 -0.2700   0 255  65
124.0600 124.9200 -2.1400   0 255  65
124.1800 124.9000 -2.1900   0 255  65
124.2900 124.8900 -2.2500   0 255  65
124.2200 124.9100 -2.4100   0 255  65
124.3400 124.9000 -2.5700   0 255  65
125.2500 124.7700 -2.6000   0 255  65
126.2700 124.6300 -2.3900   0 255  65
126.3700 124.6200 -2.4700   0 255  65
126.4200 124.6100 -2.5800   0 255  65
126.9200 124.5400 -2.5000   0 255  65
125.8300 124.7100 -3.0700   0 255  65
125.6100 124.7500 -3.2800   0 255  65
125.7500 124.7300 -3.3400   0 255  65
125.6900 124.7400 -3.4800   0 255  65
126.1900 124.6700 -3.4200   0 255  65
126.0600 124.7100 -3.9400   0 255  65
122.9200 124.7000 3.7900   0 255  65
122.6200 124.7600 3.2000   0 255  65
123.0800 124.6800 3.5800   0 255  65
122.7700 124.7400 3.0000   0 255  65
122.9100 124.7200 2.9800   0 255  65
122.9400 124.7300 2.8300   0 255  65
123.1000 124.7000 2.8200   0 255  65
123.1100 124.7100 2.6500   0 255  65
123.2200 124.7000 2.5900   0 255  65
123.4900 124.6600 2.5200   0 255  65
124.0100 124.5800 2.8800   0 255  65
124.2100 124.5500 2.9000   0 255  65
123.6900 124.6500 2.1900   0 255  65
123.7200 124.6500 2.0500   0 255  65
123.8100 124.6400 1.9600   0 255  65
123.8800 124.6300 1.8700   0 255  65
125.1000 124.4500 2.3000   0 255  65
125.1100 124.4600 2.1300   0 255  65
125.1400 124.4600 1.9800   0 255  65
125.3300 124.4400 1.8000   0 255  65
125.1900 124.4700 1.5200   0 255  65
125.3600 124.4400 1.4900   0 255  65
125.1900 124.4800 1.0300   0 255  65
125.1800 124.4900 0.8600   0 255  65
125.2300 124.4900 0.7400   0 255  65
124.9700 124.5400 0.3900   0 255  65
125.2300 124.5000 0.4300   0 255  65
125.2800 124.5000 0.3200   0 255  65
125.2200 124.5100 0.1300   0 255  65
125.1500 124.5300 -0.0700   0 255  65
125.2200 124.5200 -0.1700   0 255  65
125.1000 124.5500 -0.3900   0 255  65
125.1200 124.5500 -0.5200   0 255  65
124.8500 124.6000 -0.8300   0 255  65
125.8400 124.4400 -0.3500   0 255  65
125.3200 124.5300 -0.8100   0 255  65
124.6800 124.6400 -1.5900   0 255  65
124.7100 124.6400 -1.7000   0 255  65
124.8000 124.6400 -1.7700   0 255  65
124.0200 124.7600 -2.3200   0 255  65
123.9100 124.7800 -2.4900   0 255  65
124.0000 124.7700 -2.5500   0 255  65
123.7000 124.8200 -2.8200   0 255  65
124.2700 124.7400 -2.6500   0 255  65
124.5100 124.7100 -2.7600   0 255  65
124.8800 124.6600 -2.7000   0 255  65
124.2000 124.7600 -3.1200   0 255  65
124.3000 124.7500 -3.1900   0 255  65
124.3600 124.7500 -3.2800   0 255  65
126.6500 124.4100 -2.4200   0 255  65
125.5400 124.5800 -3.0100   0 255  65
125.9200 124.5300 -2.9800   0 255  65
126.8200 124.3900 -2.7500   0 255  65
126.9400 124.3800 -2.8400   0 255  65
127.1400 124.3600 -2.9000   0 255  65
125.7800 124.5600 -3.5200   0 255  65
122.8600 124.5400 3.7200   0 255  65
122.7700 124.5700 3.0100   0 255  65
122.7800 124.5800 2.8200   0 255  65
123.0100 124.5400 2.9100   0 255  65
122.9100 124.5700 2.6000   0 255  65
123.2500 124.5200 2.6100   0 255  65
123.5700 124.4700 2.7700   0 255  65
123.2500 124.5300 2.2500   0 255  65
123.4500 124.5100 2.2900   0 255  65
123.6600 124.4800 2.3200   0 255  65
123.6100 124.4900 2.0900   0 255  65
123.6500 124.4900 1.9600   0 255  65
124.4100 124.3700 2.5300   0 255  65
123.8100 124.4700 1.7800   0 255  65
123.9900 124.4500 1.7800   0 255  65
125.1000 124.2800 2.4400   0 255  65
125.0700 124.3000 1.8900   0 255  65
125.3900 124.2500 1.9800   0 255  65
125.3000 124.2700 1.7300   0 255  65
125.3500 124.2700 1.6100   0 255  65
125.4100 124.2700 1.3100   0 255  65
125.1400 124.3200 0.9400   0 255  65
125.3500 124.3000 0.9400   0 255  65
125.0800 124.3400 0.5900   0 255  65
125.2000 124.3400 0.3700   0 255  65
125.4000 124.3100 0.3600   0 255  65
125.0100 124.3800 -0.0600   0 255  65
125.1700 124.3600 -0.1000   0 255  65
125.0400 124.3800 -0.3300   0 255  65
125.2500 124.3500 -0.3400   0 255  65
125.8800 124.2600 -0.0900   0 255  65
125.3400 124.3500 -0.5700   0 255  65
125.1400 124.3900 -0.8300   0 255  65
124.0100 124.5800 -1.8900   0 255  65
124.0800 124.5700 -1.9700   0 255  65
124.1700 124.5600 -2.0400   0 255  65
124.1200 124.5700 -2.1900   0 255  65
123.4400 124.6800 -2.7700   0 255  65
123.5100 124.6800 -2.8400   0 255  65
123.9200 124.6200 -2.7500   0 255  65
123.8700 124.6300 -2.8800   0 255  65
123.9100 124.6300 -2.9800   0 255  65
123.9400 124.6300 -3.0700   0 255  65
124.1300 124.6000 -3.1000   0 255  65
123.9800 124.6300 -3.2700   0 255  65
125.6500 124.3800 -2.6700   0 255  65
126.3400 124.2800 -2.5000   0 255  65
126.3400 124.2900 -2.6400   0 255  65
125.9800 124.3500 -2.9100   0 255  65
125.7900 124.3800 -3.1100   0 255  65
127.1000 124.1900 -2.7400   0 255  65
127.2900 124.1600 -2.8000   0 255  65
126.0300 124.3600 -3.3900   0 255  65
125.9100 124.3800 -3.5500   0 255  65
125.7800 124.4000 -3.7200   0 255  65
125.7200 124.4100 -3.8500   0 255  65
125.7100 124.4200 -3.9700   0 255  65
122.5500 124.4300 3.1600   0 255  65
122.7400 124.4000 3.1800   0 255  65
122.7600 124.4000 3.0200   0 255  65
122.8700 124.3900 2.9500   0 255  65
122.9500 124.3800 2.8500   0 255  65
123.3500 124.3300 2.9100   0 255  65
123.3100 124.3400 2.6800   0 255  65
123.7600 124.2700 2.7900   0 255  65
124.7100 124.1200 3.5600   0 255  65
124.4500 124.1700 3.1100   0 255  65
124.3500 124.1900 2.8200   0 255  65
124.6600 124.1500 2.9300   0 255  65
124.3800 124.2000 2.4800   0 255  65
123.9500 124.2900 1.7300   0 255  65
126.0800 123.9400 3.2700   0 255  65
125.5700 124.0500 2.0900   0 255  65
125.7500 124.0300 2.0600   0 255  65
125.5400 124.0700 1.7200   0 255  65
125.7200 124.0500 1.6900   0 255  65
124.9400 124.1900 0.6100   0 255  65
124.9700 124.1900 0.4700   0 255  65
125.1900 124.1600 0.4800   0 255  65
124.4400 124.2900 -0.2000   0 255  65
125.3200 124.1500 0.2600   0 255  65
125.3700 124.1500 0.1400   0 255  65
125.3400 124.1600 -0.0300   0 255  65
126.2300 124.0300 0.3900   0 255  65
125.0700 124.2100 -0.5000   0 255  65
125.1600 124.2100 -0.5800   0 255  65
125.0700 124.2300 -1.0600   0 255  65
124.8300 124.2700 -1.3300   0 255  65
124.4700 124.3400 -1.6600   0 255  65
124.8900 124.2800 -1.5600   0 255  65
123.7200 124.4600 -2.3200   0 255  65
123.7600 124.4600 -2.5300   0 255  65
123.7400 124.4700 -2.6500   0 255  65
123.7500 124.4700 -2.7600   0 255  65
123.5900 124.5000 -2.9500   0 255  65
123.7200 124.4800 -3.0000   0 255  65
123.9200 124.4600 -3.0200   0 255  65
123.7100 124.4900 -3.2200   0 255  65
123.7900 124.4900 -3.2900   0 255  65
123.7300 124.5000 -3.4300   0 255  65
123.7800 124.5000 -3.5100   0 255  65
126.0600 124.1600 -2.6900   0 255  65
126.8200 124.0500 -2.6500   0 255  65
126.9100 124.0500 -2.7600   0 255  65
126.7400 124.0700 -2.9500   0 255  65
125.6900 124.2300 -3.4600   0 255  65
125.5900 124.2500 -3.6100   0 255  65
122.7000 124.2200 3.5300   0 255  65
122.6400 124.2400 3.0600   0 255  65
122.5900 124.2500 2.8200   0 255  65
123.2700 124.1500 3.1900   0 255  65
123.1200 124.1800 2.8400   0 255  65
123.3800 124.1400 2.9300   0 255  65
123.4500 124.1400 2.8200   0 255  65
123.7500 124.0900 2.9400   0 255  65
123.6500 124.1200 2.6500   0 255  65
124.3300 124.0100 3.1400   0 255  65
124.4400 124.0000 3.0600   0 255  65
124.6400 123.9700 3.0600   0 255  65
124.6100 123.9800 2.8400   0 255  65
124.3300 124.0400 2.2200   0 255  65
123.6500 124.1600 1.4400   0 255  65
123.9000 124.1300 1.4900   0 255  65
123.8900 124.1300 1.3200   0 255  65
125.1600 123.9300 2.2300   0 255  65
125.2600 123.9200 2.1400   0 255  65
125.7300 123.8600 1.9800   0 255  65
125.6600 123.8900 1.5800   0 255  65
125.6900 123.8900 1.4300   0 255  65
125.9700 123.8500 1.2900   0 255  65
124.7900 124.0500 0.3000   0 255  65
124.5800 124.0900 0.0000   0 255  65
125.3200 123.9800 0.2000   0 255  65
125.2900 123.9900 0.0300   0 255  65
125.4600 123.9700 -0.0100   0 255  65
125.5100 123.9700 -0.1300   0 255  65
125.1000 124.0400 -0.5400   0 255  65
124.8400 124.1000 -1.3800   0 255  65
125.1300 124.0600 -1.3500   0 255  65
124.0300 124.2300 -2.0800   0 255  65
124.5700 124.1600 -1.9200   0 255  65
124.2900 124.2000 -2.1800   0 255  65
124.1200 124.2400 -2.6300   0 255  65
124.0300 124.2600 -2.7900   0 255  65
124.2300 124.2300 -2.8100   0 255  65
124.0400 124.2700 -3.0200   0 255  65
124.1500 124.2500 -3.0800   0 255  65
123.7000 124.3300 -3.3800   0 255  65
123.7500 124.3200 -3.4700   0 255  65
123.6300 124.3400 -3.6300   0 255  65
125.4400 124.0900 -3.3900   0 255  65
125.3200 124.1200 -3.6700   0 255  65
125.4800 124.1000 -3.8600   0 255  65
122.8800 124.0300 3.1500   0 255  65
123.3400 123.9600 3.4600   0 255  65
123.3000 123.9700 3.2200   0 255  65
123.3000 123.9800 3.0300   0 255  65
123.0100 124.0400 2.5300   0 255  65
123.1600 124.0200 2.5000   0 255  65
123.3500 123.9900 2.5200   0 255  65
123.3400 124.0000 2.3200   0 255  65
123.4500 123.9900 2.0800   0 255  65
123.5500 124.0000 1.5000   0 255  65
123.5300 124.0200 1.1500   0 255  65
123.7000 123.9900 1.1400   0 255  65
123.6300 124.0100 0.9200   0 255  65
124.5600 123.9100 0.2500   0 255  65
124.7200 123.8900 0.0600   0 255  65
124.6100 123.9200 -0.1700   0 255  65
125.7700 123.7400 0.4500   0 255  65
124.9600 123.8800 -0.3700   0 255  65
125.0200 123.8800 -0.7700   0 255  65
124.7600 123.9300 -1.0600   0 255  65
125.0900 123.8800 -1.0100   0 255  65
124.9700 123.9100 -1.2200   0 255  65
125.2700 123.8700 -1.3300   0 255  65
125.1900 123.8900 -1.5100   0 255  65
125.7000 123.8100 -1.3900   0 255  65
126.9500 123.6300 -0.9000   0 255  65
124.1700 124.0600 -2.4100   0 255  65
124.9700 123.9400 -2.1500   0 255  65
124.1000 124.0800 -2.6900   0 255  65
124.0800 124.0800 -2.8200   0 255  65
124.0700 124.0900 -2.9400   0 255  65
124.1800 124.0800 -3.0000   0 255  65
124.3800 124.0500 -3.0400   0 255  65
124.4600 124.0400 -3.1200   0 255  65
125.9200 123.8300 -2.6400   0 255  65
125.8300 123.8500 -2.8100   0 255  65
126.5400 123.8900 -6.5800   0 255  65
126.4600 123.9000 -6.7000   0 255  65
